ncols        149
nrows        31
xllcorner    341620
yllcorner    1176420
cellsize     10.000000000000
131.1009979248046875 131.448974609375 131.8298492431640625 132.1812591552734375 132.4443206787109375 132.4808807373046875 132.5402374267578125 132.6098480224609375 132.6603546142578125 132.6805877685546875 132.6711578369140625 132.6716461181640625 132.7693023681640625 132.8502655029296875 132.9500885009765625 133.0700836181640625 133.1705780029296875 133.169219970703125 133.0664520263671875 133.3576812744140625 133.5798492431640625 133.7076873779296875 133.759368896484375 133.801666259765625 133.8732452392578125 134.0538787841796875 134.33331298828125 134.4297332763671875 134.618927001953125 134.7816162109375 134.7734832763671875 134.6187744140625 134.6414642333984375 135.1471405029296875 135.60455322265625 135.7902679443359375 135.656158447265625 134.99273681640625 133.69659423828125 131.634857177734375 130.9559326171875 131.689605712890625 133.6342620849609375 134.635284423828125 134.897125244140625 134.974761962890625 135.02044677734375 135.04046630859375 135.021820068359375 134.9503021240234375 134.83880615234375 134.729522705078125 134.6679534912109375 134.6595611572265625 134.6812896728515625 134.7042999267578125 134.7327117919921875 134.809295654296875 134.9674224853515625 135.2412109375 135.5868682861328125 135.887420654296875 135.6256866455078125 135.6256866455078125 135.6256866455078125 135.6256866455078125 135.820098876953125 136.1421661376953125 136.5122222900390625 136.911041259765625 137.2949981689453125 137.647674560546875 137.906982421875 138.053375244140625 138.305023193359375 138.682769775390625 139.0308990478515625 139.298675537109375 139.7155914306640625 140.3162078857421875 141.028533935546875 141.7400970458984375 142.3652191162109375 142.818939208984375 143.174163818359375 143.5403289794921875 143.9024200439453125 144.143951416015625 144.4833221435546875 144.9137725830078125 145.369171142578125 145.685211181640625 145.63958740234375 145.7200775146484375 145.8300933837890625 145.939788818359375 146.059844970703125 146.1998443603515625 146.351043701171875 146.519287109375 146.6521759033203125 146.76324462890625 146.8824462890625 147.006561279296875 147.088714599609375 147.4139556884765625 147.759002685546875 148.0807342529296875 148.4392242431640625 148.766143798828125 148.927490234375 148.8062591552734375 148.5519256591796875 148.2872772216796875 148.0466766357421875 147.8800811767578125 147.83929443359375 147.8189239501953125 147.700286865234375 147.5894775390625 147.4807281494140625 147.41998291015625 147.2910003662109375 147.1391448974609375 146.960968017578125 146.7997283935546875 146.6609039306640625 146.6090240478515625 146.500213623046875 146.370513916015625 146.3199310302734375 146.2999267578125 146.30999755859375 146.359832763671875 146.4202728271484375 146.500213623046875 146.600189208984375 146.709564208984375 146.791168212890625 146.93048095703125 147.0792388916015625 147.2194671630859375 147.35015869140625 147.4792938232421875 147.579803466796875 147.6699371337890625 147.730255126953125 147.7904815673828125 147.91192626953125
131.0684356689453125 131.3399200439453125 131.6726837158203125 132.0055389404296875 132.295257568359375 132.38067626953125 132.459564208984375 132.5405120849609375 132.6099700927734375 132.65008544921875 132.669708251953125 132.6793365478515625 132.701263427734375 132.8183441162109375 132.9306182861328125 133.0697174072265625 133.160430908203125 133.164642333984375 132.9724884033203125 133.2363128662109375 133.360748291015625 133.420684814453125 133.55255126953125 133.7668609619140625 133.816650390625 134.049407958984375 134.2295074462890625 134.1456146240234375 134.0885772705078125 134.051116943359375 134.0774078369140625 134.243743896484375 134.477081298828125 134.8164520263671875 135.114349365234375 135.32672119140625 135.3671417236328125 134.97308349609375 133.7047576904296875 131.757049560546875 130.9559326171875 132.3145751953125 133.98870849609375 134.647125244140625 134.69744873046875 134.668487548828125 134.6567840576171875 134.659759521484375 134.63494873046875 134.5345306396484375 134.4030303955078125 134.30108642578125 134.26043701171875 134.289581298828125 134.3482818603515625 134.3630523681640625 134.316864013671875 134.327667236328125 134.4331817626953125 134.6362762451171875 134.9340972900390625 135.454132080078125 135.8629150390625 135.6256866455078125 135.6256866455078125 135.7190093994140625 135.9501495361328125 136.232025146484375 136.5606842041015625 136.9051513671875 137.26190185546875 137.59564208984375 137.899322509765625 138.141326904296875 138.4197845458984375 138.763885498046875 139.0084075927734375 139.4362945556640625 140.050811767578125 140.8032379150390625 141.5910491943359375 142.3007659912109375 142.885894775390625 143.275848388671875 143.5378570556640625 143.861236572265625 144.0720672607421875 144.2441558837890625 144.519927978515625 144.85125732421875 145.182769775390625 145.3883209228515625 145.481292724609375 145.618743896484375 145.739959716796875 145.8596343994140625 145.9802398681640625 146.11981201171875 146.2595672607421875 146.390899658203125 146.520355224609375 146.649993896484375 146.7862091064453125 146.89056396484375 147.1738433837890625 147.52764892578125 147.8938140869140625 148.269195556640625 148.59832763671875 148.777618408203125 148.7412109375 148.5598297119140625 148.3079071044921875 148.0746917724609375 147.9028472900390625 147.84967041015625 147.8008270263671875 147.7897186279296875 147.7100830078125 147.590606689453125 147.5106201171875 147.4471282958984375 147.250457763671875 147.0504302978515625 146.8493194580078125 146.6602020263671875 146.5120391845703125 146.4889984130859375 146.3899688720703125 146.290069580078125 146.239837646484375 146.219940185546875 146.2400665283203125 146.3004302978515625 146.3798980712890625 146.4699554443359375 146.56988525390625 146.680206298828125 146.8090667724609375 146.92987060546875 147.0411834716796875 147.1800079345703125 147.3204345703125 147.460418701171875 147.5901336669921875 147.7096405029296875 147.7994384765625 147.8605194091796875 147.97833251953125
131.00421142578125 131.2461700439453125 131.5572052001953125 131.8704833984375 132.1480712890625 132.2808380126953125 132.33782958984375 132.475982666015625 132.560089111328125 132.629608154296875 132.6707305908203125 132.680023193359375 132.6800537109375 132.730743408203125 132.8996734619140625 133.030181884765625 133.0769805908203125 132.9350128173828125 132.6497344970703125 132.430572509765625 132.3433074951171875 132.5286712646484375 132.9606170654296875 133.452880859375 133.813262939453125 134.061981201171875 134.1356048583984375 133.7523956298828125 133.0178680419921875 132.3520965576171875 132.2347412109375 132.746368408203125 133.343170166015625 133.646759033203125 133.8070831298828125 133.9404449462890625 134.0189666748046875 133.7633514404296875 132.766448974609375 131.2476348876953125 130.9559326171875 132.6634674072265625 133.9278411865234375 134.1616058349609375 134.0371246337890625 134.04925537109375 134.1535186767578125 134.2810821533203125 134.2946929931640625 134.147216796875 133.964019775390625 133.850738525390625 133.82623291015625 133.9029083251953125 134.0142822265625 134.0143585205078125 133.905609130859375 133.9021759033203125 134.003204345703125 134.1987762451171875 134.519073486328125 135.2565155029296875 135.9428253173828125 135.9068603515625 135.85174560546875 135.9489288330078125 136.130218505859375 136.37994384765625 136.6791534423828125 136.9990081787109375 137.3300933837890625 137.6489410400390625 137.94378662109375 138.2288970947265625 138.4816131591796875 138.73797607421875 139.1648406982421875 139.719970703125 140.43548583984375 141.25372314453125 142.0485992431640625 142.6589813232421875 143.047760009765625 143.3839111328125 143.6708984375 143.9510955810546875 144.1686859130859375 144.3221435546875 144.530517578125 144.7893524169921875 145.067901611328125 145.2399749755859375 145.36962890625 145.50042724609375 145.62945556640625 145.7505035400390625 145.8800506591796875 146.0199737548828125 146.1600341796875 146.299285888671875 146.42950439453125 146.5587005615234375 146.67608642578125 146.91650390625 147.2277984619140625 147.5803985595703125 147.95477294921875 148.3358001708984375 148.589599609375 148.563018798828125 148.420562744140625 148.2050323486328125 147.965301513671875 147.7870330810546875 147.771575927734375 147.79937744140625 147.7599334716796875 147.740570068359375 147.70892333984375 147.5911102294921875 147.507049560546875 147.350921630859375 147.149993896484375 146.9388580322265625 146.7205810546875 146.5299530029296875 146.3815765380859375 146.369049072265625 146.2704315185546875 146.1899261474609375 146.1400299072265625 146.1303558349609375 146.1806182861328125 146.2793121337890625 146.3504486083984375 146.4398651123046875 146.530120849609375 146.640167236328125 146.7802886962890625 146.929412841796875 147.0591583251953125 147.171478271484375 147.3194580078125 147.459716796875 147.5900421142578125 147.7003936767578125 147.7996826171875 147.8691864013671875 147.9313201904296875
131.03863525390625 131.14483642578125 131.42950439453125 131.7391510009765625 132.0212554931640625 132.2167510986328125 132.1169891357421875 132.2802581787109375 132.4340972900390625 132.53466796875 132.67486572265625 132.680419921875 132.6693572998046875 132.653106689453125 132.8784027099609375 132.9608306884765625 132.822723388671875 132.3336639404296875 131.484222412109375 130.761260986328125 130.5124969482421875 130.85418701171875 131.7359619140625 132.738433837890625 133.51971435546875 133.9228668212890625 133.87408447265625 132.9940338134765625 131.590972900390625 130.4084930419921875 130.22027587890625 130.9435882568359375 131.60858154296875 131.66400146484375 131.642791748046875 131.6750335693359375 131.7949066162109375 131.697479248046875 131.0344085693359375 130.1447296142578125 130.8115386962890625 132.2299346923828125 132.8807373046875 132.732635498046875 132.5041046142578125 132.7975006103515625 133.2432098388671875 133.6982574462890625 133.822998046875 133.6525421142578125 133.4533538818359375 133.36517333984375 133.3988037109375 133.5365447998046875 133.707305908203125 133.7476806640625 133.7476806640625 133.79217529296875 134.0555877685546875 134.428802490234375 134.9593353271484375 135.678802490234375 136.0376739501953125 136.0703582763671875 136.0694732666015625 136.140899658203125 136.3005218505859375 136.5302734375 136.8098602294921875 137.1125335693359375 137.4287261962890625 137.7227935791015625 137.989044189453125 138.198272705078125 138.5070953369140625 138.9472198486328125 139.4078826904296875 139.98779296875 140.72802734375 141.5551605224609375 142.306121826171875 142.7108306884765625 143.0469818115234375 143.3881072998046875 143.6977081298828125 143.97967529296875 144.229949951171875 144.4197998046875 144.5762176513671875 144.8303680419921875 144.999053955078125 145.12042236328125 145.249298095703125 145.3792572021484375 145.5009002685546875 145.63922119140625 145.7701263427734375 145.9098052978515625 146.0495147705078125 146.190216064453125 146.3304290771484375 146.482086181640625 146.678680419921875 146.928955078125 147.2212677001953125 147.561431884765625 147.9096221923828125 148.1967620849609375 148.275115966796875 148.204254150390625 148.0233612060546875 147.8027496337890625 147.6376953125 147.654083251953125 147.8074798583984375 147.7700042724609375 147.69073486328125 147.6793975830078125 147.6305084228515625 147.545379638671875 147.3529815673828125 147.1893463134765625 146.99957275390625 146.7893829345703125 146.5806121826171875 146.4088897705078125 146.2713775634765625 146.258819580078125 146.1506805419921875 146.0793304443359375 146.0502777099609375 146.0804595947265625 146.169525146484375 146.26019287109375 146.34979248046875 146.4202880859375 146.4998626708984375 146.6003570556640625 146.739654541015625 146.889617919921875 147.0405120849609375 147.2079925537109375 147.321014404296875 147.4504547119140625 147.5894927978515625 147.6896209716796875 147.7498016357421875 147.8106689453125 147.919586181640625
131.00091552734375 131.051666259765625 131.3079376220703125 131.6001739501953125 131.882476806640625 132.1169891357421875 132.1291656494140625 132.1808929443359375 132.2324371337890625 132.2676239013671875 132.444366455078125 132.6009674072265625 132.6486663818359375 132.7110137939453125 132.928466796875 133.0005645751953125 132.6084136962890625 131.46551513671875 129.85076904296875 129.0340423583984375 129.0340423583984375 129.0340423583984375 129.9673309326171875 131.4883270263671875 132.7487030029296875 133.45281982421875 133.345306396484375 132.1658935546875 130.38677978515625 129.06939697265625 129.0340423583984375 129.59075927734375 129.8658447265625 129.5673675537109375 129.488311767578125 129.488311767578125 129.659454345703125 129.6875152587890625 129.659454345703125 129.659454345703125 130.2402496337890625 131.256195068359375 131.4208221435546875 131.0830535888671875 131.0830535888671875 131.3190155029296875 131.8835296630859375 132.6885986328125 133.0057830810546875 132.9140472412109375 132.7918243408203125 132.8338623046875 133.0043792724609375 133.23468017578125 133.48583984375 133.762542724609375 133.955322265625 134.3225250244140625 134.8633575439453125 135.31231689453125 135.6342315673828125 135.897247314453125 136.0713348388671875 136.1499176025390625 136.19000244140625 136.289459228515625 136.4502716064453125 136.6710357666015625 136.941253662109375 137.23883056640625 137.521484375 137.7869110107421875 137.956756591796875 138.2899017333984375 138.7208404541015625 139.2179412841796875 139.6938323974609375 140.1883697509765625 140.8607177734375 141.579803466796875 142.171966552734375 142.6099090576171875 142.977691650390625 143.3110809326171875 143.628753662109375 143.9401397705078125 144.257415771484375 144.5093536376953125 144.6292266845703125 144.722991943359375 144.858917236328125 144.9698486328125 145.090789794921875 145.2296295166015625 145.3694915771484375 145.5102996826171875 145.65020751953125 145.789306640625 145.931396484375 146.099884033203125 146.27044677734375 146.459075927734375 146.659515380859375 146.8883056640625 147.1514129638671875 147.459136962890625 147.72918701171875 147.8623504638671875 147.867950439453125 147.76544189453125 147.5838165283203125 147.42510986328125 147.4835205078125 147.7949981689453125 147.8096466064453125 147.7001190185546875 147.5811614990234375 147.5362548828125 147.4808502197265625 147.3561553955078125 147.12701416015625 146.988861083984375 146.819366455078125 146.611663818359375 146.419586181640625 146.2698516845703125 146.1808319091796875 146.1490631103515625 146.02850341796875 145.9513092041015625 145.9901580810546875 146.069732666015625 146.160186767578125 146.260101318359375 146.359710693359375 146.4296722412109375 146.4810028076171875 146.5695037841796875 146.6801300048828125 146.820281982421875 146.99029541015625 147.1798858642578125 147.348297119140625 147.4604949951171875 147.5703277587890625 147.64959716796875 147.6806640625 147.7704010009765625 147.899932861328125
130.9891510009765625 130.9435577392578125 131.1769866943359375 131.4597015380859375 131.7410125732421875 131.98822021484375 132.101043701171875 132.2479400634765625 132.406524658203125 132.5235137939453125 132.412353515625 132.412353515625 132.51580810546875 132.7405548095703125 132.9561614990234375 133.0935516357421875 132.39959716796875 130.7273406982421875 129.0340423583984375 129.0340423583984375 129.0340423583984375 129.0340423583984375 129.0340423583984375 129.9743194580078125 131.4556427001953125 132.4245452880859375 132.450775146484375 131.27105712890625 129.5165863037109375 129.0340423583984375 129.0340423583984375 129.0340423583984375 129.0340423583984375 129.0340423583984375 129.596435546875 130.117584228515625 130.057281494140625 129.659454345703125 129.659454345703125 129.659454345703125 129.959930419921875 130.7255859375 131.0659637451171875 131.484222412109375 131.723236083984375 131.652069091796875 131.3190155029296875 131.6432952880859375 131.8389434814453125 131.9091644287109375 132.0929718017578125 132.4751739501953125 132.9259796142578125 133.3542633056640625 133.8048553466796875 134.3018951416015625 134.8140716552734375 135.1265411376953125 135.3802337646484375 135.6236724853515625 135.84326171875 136.0285491943359375 136.14019775390625 136.209747314453125 136.2502593994140625 136.38055419921875 136.5695953369140625 136.8000030517578125 137.0620269775390625 137.3357391357421875 137.5721588134765625 137.7472686767578125 138.1103973388671875 138.5399017333984375 139.0086212158203125 139.5063323974609375 139.991790771484375 140.4234161376953125 140.886383056640625 141.4434967041015625 141.9826507568359375 142.4506378173828125 142.8492889404296875 143.1881866455078125 143.4915618896484375 143.813323974609375 144.17254638671875 144.489349365234375 144.559051513671875 144.629974365234375 144.7015380859375 144.799835205078125 144.9293670654296875 145.0703582763671875 145.2307586669921875 145.390045166015625 145.5383148193359375 145.6720428466796875 145.8492584228515625 146.030303955078125 146.2197723388671875 146.409637451171875 146.589813232421875 146.7730865478515625 147.0013427734375 147.2473907470703125 147.401336669921875 147.466796875 147.4312896728515625 147.328125 147.193328857421875 147.215087890625 147.4317626953125 147.6181182861328125 147.6274261474609375 147.5174560546875 147.37762451171875 147.264312744140625 147.275848388671875 147.1198883056640625 146.8970794677734375 146.790191650390625 146.63909912109375 146.42767333984375 146.220001220703125 146.0915679931640625 146.096527099609375 146.0373382568359375 145.901275634765625 145.9093780517578125 145.990020751953125 146.0801239013671875 146.1800384521484375 146.2798919677734375 146.37017822265625 146.4503021240234375 146.5286407470703125 146.541778564453125 146.6292724609375 146.7603302001953125 146.9403228759765625 147.1304168701171875 147.3199310302734375 147.4889678955078125 147.58990478515625 147.6300506591796875 147.660919189453125 147.7696990966796875 147.8899383544921875
131.016021728515625 130.9435577392578125 131.043548583984375 131.3193817138671875 131.599822998046875 131.8580474853515625 132.0297393798828125 132.16119384765625 132.3314056396484375 132.47088623046875 132.5176544189453125 132.4795074462890625 132.64019775390625 132.9738311767578125 133.058349609375 133.0945587158203125 132.075531005859375 130.138519287109375 129.0340423583984375 129.0340423583984375 129.2732696533203125 129.0340423583984375 129.0340423583984375 129.0340423583984375 129.7536773681640625 130.828094482421875 131.1391448974609375 130.258453369140625 129.0340423583984375 129.0340423583984375 129.0340423583984375 129.0340423583984375 129.0340423583984375 129.6454620361328125 131.08038330078125 132.0097198486328125 131.833282470703125 130.7830657958984375 129.7652435302734375 129.7587890625 130.2152252197265625 131.0668487548828125 131.7987213134765625 132.6633758544921875 133.2693328857421875 133.264129638671875 132.47808837890625 131.9602508544921875 131.6432952880859375 131.6432952880859375 131.9055023193359375 132.71771240234375 133.42193603515625 134.0009613037109375 134.563629150390625 134.8730010986328125 135.0641021728515625 135.27923583984375 135.5242156982421875 135.78289794921875 135.9401702880859375 136.080780029296875 136.199554443359375 136.259796142578125 136.29205322265625 136.4578704833984375 136.6610565185546875 136.9022979736328125 137.153076171875 137.3585052490234375 137.581085205078125 137.9585723876953125 138.404876708984375 138.8611907958984375 139.308319091796875 139.764617919921875 140.2241973876953125 140.6340789794921875 140.9271392822265625 141.33551025390625 141.83465576171875 142.309173583984375 142.7167205810546875 143.04901123046875 143.334381103515625 143.626983642578125 143.9330596923828125 144.1006317138671875 144.275970458984375 144.4719390869140625 144.5707855224609375 144.6305694580078125 144.7682952880859375 144.9316558837890625 145.129791259765625 145.2892303466796875 145.4225311279296875 145.59930419921875 145.7805328369140625 145.9700164794921875 146.160003662109375 146.3397369384765625 146.5004119873046875 146.650970458984375 146.787445068359375 146.907958984375 147.0162200927734375 147.0492095947265625 147.017669677734375 146.956329345703125 146.9257049560546875 147.0588226318359375 147.2467498779296875 147.3257904052734375 147.30804443359375 147.198089599609375 147.07647705078125 146.985748291015625 146.949798583984375 146.8536376953125 146.684478759765625 146.6265106201171875 146.473846435546875 146.20953369140625 145.9514617919921875 145.8151397705078125 145.8778076171875 145.901275634765625 145.9181671142578125 145.911895751953125 146.039093017578125 146.130340576171875 146.2299346923828125 146.3202056884765625 146.4098663330078125 146.489959716796875 146.5603179931640625 146.6183013916015625 146.602508544921875 146.739959716796875 146.939300537109375 147.12127685546875 147.302154541015625 147.5018463134765625 147.618804931640625 147.6405487060546875 147.68975830078125 147.7600860595703125 147.8506317138671875
131.0380706787109375 130.9876556396484375 130.9435577392578125 131.1868133544921875 131.4509735107421875 131.71026611328125 131.925872802734375 132.0330352783203125 132.228424072265625 132.370391845703125 132.4295806884765625 132.3855133056640625 132.557830810546875 132.929443359375 133.0987701416015625 132.6491851806640625 131.199951171875 129.0340423583984375 129.0340423583984375 129.0340423583984375 130.33349609375 130.0229949951171875 129.0340423583984375 129.0340423583984375 129.0340423583984375 129.0340423583984375 129.5307769775390625 129.14019775390625 129.0340423583984375 129.0340423583984375 129.3487548828125 129.27740478515625 129.674957275390625 130.936370849609375 132.5233306884765625 133.44287109375 133.10589599609375 131.9623260498046875 130.960113525390625 130.6634674072265625 130.7594451904296875 131.501708984375 132.637481689453125 133.736114501953125 134.4340057373046875 134.6326751708984375 134.2015380859375 133.49053955078125 132.502716064453125 132.299957275390625 132.8508148193359375 133.727203369140625 134.2995758056640625 134.5531158447265625 134.72064208984375 134.8048858642578125 134.983306884765625 135.2834320068359375 135.528564453125 135.7526092529296875 135.950531005859375 136.11932373046875 136.2400970458984375 136.3299102783203125 136.3996429443359375 136.5117645263671875 136.73931884765625 136.983367919921875 137.1541748046875 137.39190673828125 137.7507171630859375 138.2099609375 138.711395263671875 139.1866302490234375 139.5999603271484375 139.9791107177734375 140.3576812744140625 140.7105560302734375 141.0207061767578125 141.3275299072265625 141.772003173828125 142.20709228515625 142.5956573486328125 142.9398956298828125 143.2346649169921875 143.4683074951171875 143.6552886962890625 143.8249053955078125 144.002105712890625 144.238037109375 144.4725799560546875 144.4930877685546875 144.6324462890625 144.8517608642578125 145.0776214599609375 145.2211151123046875 145.379486083984375 145.550048828125 145.7298583984375 145.909912109375 146.0895233154296875 146.2504119873046875 146.391265869140625 146.4952850341796875 146.5115203857421875 146.568359375 146.6197357177734375 146.636322021484375 146.618560791015625 146.6110382080078125 146.700775146484375 146.85760498046875 146.9945220947265625 147.0187835693359375 146.9242401123046875 146.7814483642578125 146.66912841796875 146.6073150634765625 146.584991455078125 146.53729248046875 146.432464599609375 146.4333343505859375 146.379241943359375 146.037139892578125 145.5982208251953125 145.498443603515625 145.659637451171875 145.837799072265625 145.9111328125 145.999420166015625 146.119720458984375 146.2201690673828125 146.310028076171875 146.3898468017578125 146.4602508544921875 146.53985595703125 146.6102752685546875 146.68975830078125 146.7386474609375 146.8159637451171875 147.0198974609375 147.219390869140625 147.389617919921875 147.5962066650390625 147.611114501953125 147.6497802734375 147.689697265625 147.720367431640625 147.7697601318359375
130.96588134765625 130.9598388671875 130.832275390625 131.056060791015625 131.3097381591796875 131.551849365234375 131.7673797607421875 131.8730010986328125 132.090728759765625 132.242767333984375 132.2620697021484375 132.19805908203125 132.2722930908203125 132.4244537353515625 132.2916717529296875 131.4813385009765625 129.8933258056640625 129.0340423583984375 129.0340423583984375 129.7664642333984375 131.4847869873046875 131.669158935546875 130.880584716796875 129.5340576171875 129.0340423583984375 129.0340423583984375 129.0340423583984375 129.0340423583984375 129.0340423583984375 130.24090576171875 130.8770904541015625 130.848724365234375 131.20452880859375 132.2502899169921875 133.4168853759765625 133.9121856689453125 133.644866943359375 132.93756103515625 132.2902069091796875 132.023040771484375 132.1330718994140625 132.7816925048828125 133.7457122802734375 134.5225982666015625 134.8621063232421875 135.0093841552734375 134.9102935791015625 134.5360260009765625 134.0731048583984375 134.007171630859375 134.1982421875 134.4795379638671875 134.404815673828125 134.393096923828125 134.4944000244140625 134.4566802978515625 134.6147613525390625 135.0343780517578125 135.4197845458984375 135.7201385498046875 135.9593048095703125 136.140167236328125 136.2802276611328125 136.3996734619140625 136.498992919921875 136.5741119384765625 136.787017822265625 136.993621826171875 137.232269287109375 137.548980712890625 137.9556884765625 138.433349609375 138.9357452392578125 139.3950347900390625 139.767364501953125 140.0986175537109375 140.412384033203125 140.730682373046875 141.0399169921875 141.365447998046875 141.7479248046875 142.1051483154296875 142.4672698974609375 142.9085540771484375 143.2066192626953125 143.3311614990234375 143.4409637451171875 143.5611572265625 143.7543487548828125 144.050323486328125 144.3426666259765625 144.554351806640625 144.655059814453125 144.8670501708984375 145.0493927001953125 145.190032958984375 145.3398284912109375 145.5002593994140625 145.6693115234375 145.830291748046875 145.990692138671875 146.130767822265625 146.2170257568359375 146.1387481689453125 146.144561767578125 146.1974029541015625 146.228057861328125 146.2405548095703125 146.2706298828125 146.3679046630859375 146.4658660888671875 146.5625457763671875 146.61871337890625 146.580474853515625 146.451629638671875 146.318695068359375 146.249664306640625 146.2669677734375 146.2661895751953125 146.2142181396484375 146.11737060546875 146.1898193359375 146.1325225830078125 145.7057647705078125 145.2218170166015625 145.2624664306640625 145.4813385009765625 145.752899169921875 145.9385528564453125 146.060791015625 146.200653076171875 146.32965087890625 146.4105224609375 146.4701385498046875 146.5298614501953125 146.6001129150390625 146.679840087890625 146.7708282470703125 146.8891143798828125 147.0168609619140625 147.1805419921875 147.382080078125 147.5652923583984375 147.581268310546875 147.60015869140625 147.6298370361328125 147.6498870849609375 147.6499176025390625 147.612640380859375
130.7488861083984375 130.90570068359375 130.7884521484375 130.9373931884765625 131.1888275146484375 131.42095947265625 131.61712646484375 131.6994171142578125 131.9519500732421875 132.062591552734375 131.7751007080078125 131.2531890869140625 130.961669921875 130.8627471923828125 130.5495758056640625 129.68109130859375 129.0340423583984375 129.0340423583984375 129.0340423583984375 131.0386199951171875 132.4966278076171875 132.7735595703125 132.4136505126953125 131.2679595947265625 129.67919921875 129.0340423583984375 129.0340423583984375 129.0340423583984375 129.9779815673828125 131.46685791015625 132.2753448486328125 132.464385986328125 132.7010955810546875 133.2502288818359375 133.8536376953125 134.12567138671875 134.2257537841796875 134.0945892333984375 133.8685760498046875 133.7507476806640625 133.8255615234375 134.1581573486328125 134.6081085205078125 134.8439788818359375 134.782073974609375 134.727935791015625 134.55865478515625 134.4759368896484375 134.51214599609375 134.4288177490234375 134.007171630859375 134.007171630859375 134.007171630859375 134.007171630859375 134.007171630859375 134.007171630859375 134.402801513671875 134.933319091796875 135.40081787109375 135.7406158447265625 135.990814208984375 136.1800537109375 136.3293609619140625 136.4504547119140625 136.5796356201171875 136.699127197265625 136.8411865234375 137.068817138671875 137.3496246337890625 137.6983642578125 138.1048583984375 138.56103515625 139.0224761962890625 139.450958251953125 139.819122314453125 140.139892578125 140.4311676025390625 140.7182769775390625 140.99810791015625 141.2994232177734375 141.622406005859375 141.93511962890625 142.28057861328125 142.660369873046875 142.95989990234375 143.1480560302734375 143.2694549560546875 143.3531951904296875 143.58001708984375 143.9287567138671875 144.2604522705078125 144.5413818359375 144.764556884765625 144.8922119140625 145.03070068359375 145.1598358154296875 145.29046630859375 145.4392852783203125 145.580841064453125 145.7305450439453125 145.8694915771484375 145.95318603515625 145.907012939453125 145.833343505859375 145.8220672607421875 145.8502044677734375 145.86920166015625 145.9103546142578125 146.0263671875 146.1129150390625 146.1308135986328125 146.135040283203125 146.1219024658203125 146.0633544921875 145.960723876953125 145.8882293701171875 145.958343505859375 145.9521942138671875 145.92742919921875 145.856719970703125 145.747589111328125 145.71722412109375 145.5950927734375 145.245758056640625 145.1002349853515625 145.2179412841796875 145.362152099609375 145.596893310546875 145.880096435546875 146.0876312255859375 146.280059814453125 146.439666748046875 146.5393829345703125 146.5704498291015625 146.60028076171875 146.6698455810546875 146.7503509521484375 146.8694305419921875 146.9999542236328125 147.1400604248046875 147.3021392822265625 147.4876708984375 147.5502777099609375 147.5603179931640625 147.589630126953125 147.6003570556640625 147.6101226806640625 147.6201934814453125 147.61090087890625
130.7201385498046875 130.8094329833984375 130.7884521484375 130.8624725341796875 131.0996856689453125 131.3299102783203125 131.499176025390625 131.5841827392578125 131.748809814453125 131.5302886962890625 130.58941650390625 129.4462738037109375 129.0340423583984375 129.0340423583984375 129.0340423583984375 129.0340423583984375 129.0340423583984375 129.0340423583984375 130.4494171142578125 132.2706756591796875 133.194122314453125 133.2235870361328125 133.201995849609375 132.41864013671875 130.976318359375 129.3378143310546875 129.0340423583984375 129.5551300048828125 130.871612548828125 132.110015869140625 132.820465087890625 133.102691650390625 133.30419921875 133.5572967529296875 133.8265838623046875 134.0516357421875 134.2423095703125 134.3976593017578125 134.500244140625 134.549530029296875 134.600006103515625 134.6460113525390625 134.6558380126953125 134.61651611328125 134.4718017578125 134.4432525634765625 134.491455078125 134.5873260498046875 134.4815216064453125 134.1812744140625 134.007171630859375 134.007171630859375 134.007171630859375 134.007171630859375 134.007171630859375 134.2674102783203125 134.694366455078125 135.1590423583984375 135.5691680908203125 135.861907958984375 136.078094482421875 136.238983154296875 136.3706512451171875 136.5098724365234375 136.6513824462890625 136.8074188232421875 136.90386962890625 137.139312744140625 137.4502410888671875 137.8225250244140625 138.2387542724609375 138.6607666015625 139.07733154296875 139.4696502685546875 139.8215789794921875 140.1386260986328125 140.4164276123046875 140.6596832275390625 140.905181884765625 141.2027587890625 141.516815185546875 141.794158935546875 142.08154296875 142.4008636474609375 142.70196533203125 142.952423095703125 143.1464080810546875 143.24737548828125 143.554656982421875 143.9001922607421875 144.2409515380859375 144.542236328125 144.807891845703125 144.989044189453125 145.080047607421875 145.1402587890625 145.2395172119140625 145.3507843017578125 145.479583740234375 145.5986175537109375 145.6751556396484375 145.671539306640625 145.62908935546875 145.57940673828125 145.560302734375 145.56768798828125 145.57977294921875 145.685791015625 145.7655792236328125 145.779266357421875 145.748931884765625 145.69866943359375 145.629180908203125 145.5543365478515625 145.5111236572265625 145.6085357666015625 145.6568145751953125 145.6357421875 145.5719451904296875 145.483062744140625 145.3406982421875 145.29730224609375 145.1619110107421875 145.079010009765625 145.0706634521484375 145.188873291015625 145.290740966796875 145.4706878662109375 145.698486328125 145.96954345703125 146.2628021240234375 146.480621337890625 146.6197662353515625 146.6790771484375 146.6808319091796875 146.739959716796875 146.8198699951171875 146.940216064453125 147.0799560546875 147.221038818359375 147.378631591796875 147.479400634765625 147.5008544921875 147.5401458740234375 147.580322265625 147.60980224609375 147.600494384765625 147.6104278564453125 147.6215057373046875
130.6622314453125 130.689422607421875 130.699737548828125 130.8030853271484375 131.0599365234375 131.2891082763671875 131.4203033447265625 131.4798431396484375 131.412750244140625 130.754180908203125 129.26904296875 129.0340423583984375 129.0340423583984375 129.0340423583984375 129.0340423583984375 129.0340423583984375 129.269775390625 130.489044189453125 132.0672454833984375 133.2257537841796875 133.5711822509765625 133.408599853515625 133.3379669189453125 132.90960693359375 131.973663330078125 130.6705169677734375 129.8702392578125 130.49249267578125 131.3468475341796875 132.1434783935546875 132.68994140625 133.0164031982421875 133.2506866455078125 133.44049072265625 133.61065673828125 133.777008056640625 133.9282379150390625 134.053375244140625 134.1487274169921875 134.203125 134.2220001220703125 134.225860595703125 134.2437591552734375 134.4059295654296875 134.437774658203125 134.43182373046875 134.6154937744140625 134.69891357421875 134.566192626953125 134.332244873046875 134.007171630859375 134.007171630859375 134.007171630859375 134.1161346435546875 134.421417236328125 134.7732086181640625 135.1595916748046875 135.508087158203125 135.815155029296875 136.024444580078125 136.151214599609375 136.2821197509765625 136.4396209716796875 136.59051513671875 136.7491912841796875 136.890045166015625 137.0104522705078125 137.2103424072265625 137.541717529296875 137.9410858154296875 138.35784912109375 138.7385101318359375 139.0940093994140625 139.456085205078125 139.7933197021484375 140.0886688232421875 140.3418121337890625 140.5917205810546875 140.8599395751953125 141.1492767333984375 141.4420623779296875 141.7243194580078125 141.938385009765625 142.196624755859375 142.5107269287109375 142.81817626953125 143.046173095703125 143.2431793212890625 143.578369140625 143.9322357177734375 144.288177490234375 144.5903472900390625 144.836639404296875 145.06646728515625 145.1292724609375 145.1104888916015625 145.1500091552734375 145.23712158203125 145.3176422119140625 145.3762664794921875 145.380767822265625 145.36151123046875 145.3400421142578125 145.32037353515625 145.318817138671875 145.325897216796875 145.4015655517578125 145.438201904296875 145.448150634765625 145.4119873046875 145.3526611328125 145.2793731689453125 145.1877899169921875 145.1366119384765625 145.2460174560546875 145.3069305419921875 145.31854248046875 145.2827301025390625 145.2295989990234375 145.153778076171875 145.093292236328125 145.0256195068359375 145.0294342041015625 145.0208740234375 145.08868408203125 145.1503753662109375 145.2501373291015625 145.400482177734375 145.5885009765625 145.78350830078125 146.02606201171875 146.4052734375 146.609466552734375 146.710968017578125 146.7695465087890625 146.81005859375 146.87091064453125 146.999267578125 147.14013671875 147.269134521484375 147.3597412109375 147.4207000732421875 147.48992919921875 147.559814453125 147.6201324462890625 147.659912109375 147.64007568359375 147.6118011474609375 147.6072998046875
130.621246337890625 130.55426025390625 130.5745391845703125 130.78857421875 131.090179443359375 131.310455322265625 131.3999481201171875 131.3896026611328125 131.235565185546875 130.6653900146484375 129.114898681640625 129.0340423583984375 129.0340423583984375 129.4627838134765625 130.3649749755859375 131.0184478759765625 131.5732421875 132.35150146484375 133.16937255859375 133.639434814453125 133.62158203125 133.4682769775390625 133.3061981201171875 133.1790618896484375 132.7063140869140625 131.8494873046875 131.003570556640625 131.0684051513671875 131.545745849609375 132.003173828125 132.45037841796875 132.7906646728515625 133.021209716796875 133.1802978515625 133.29156494140625 133.384552001953125 133.47198486328125 133.5362091064453125 133.6091156005859375 133.6676177978515625 133.7649383544921875 133.9368438720703125 134.0657806396484375 134.246490478515625 134.3512420654296875 134.4811248779296875 134.680572509765625 134.819244384765625 134.7952423095703125 134.624114990234375 134.461456298828125 134.3969573974609375 134.4980316162109375 134.7151336669921875 134.9995269775390625 135.3111724853515625 135.62164306640625 135.7939300537109375 135.9165496826171875 136.07745361328125 136.259613037109375 136.409393310546875 136.550689697265625 136.7003326416015625 136.8502197265625 136.98968505859375 137.11859130859375 137.2582550048828125 137.623077392578125 138.05169677734375 138.46502685546875 138.787841796875 139.083770751953125 139.3814697265625 139.6871490478515625 140.00750732421875 140.2803802490234375 140.550445556640625 140.8292999267578125 141.1106414794921875 141.398651123046875 141.672515869140625 141.931610107421875 142.057586669921875 142.386932373046875 142.7330322265625 142.9497528076171875 143.260589599609375 143.63787841796875 144.0115509033203125 144.3783721923828125 144.6979827880859375 144.9380035400390625 145.081451416015625 145.1298980712890625 145.080413818359375 145.040802001953125 145.0414581298828125 145.08148193359375 145.102020263671875 145.09210205078125 145.08001708984375 145.0681915283203125 145.068695068359375 145.0795745849609375 145.111968994140625 145.112457275390625 145.118743896484375 145.1010284423828125 145.05865478515625 144.9980010986328125 144.9253082275390625 144.8553009033203125 144.92938232421875 144.9528656005859375 144.971405029296875 144.970916748046875 144.949462890625 144.9179840087890625 144.8768768310546875 144.873291015625 144.9492034912109375 145.0096435546875 145.029541015625 145.059814453125 145.1301116943359375 145.2400970458984375 145.3798065185546875 145.530853271484375 145.71063232421875 145.9254302978515625 146.1095733642578125 146.49420166015625 146.7342376708984375 146.8206787109375 146.8802032470703125 146.9496002197265625 147.031463623046875 147.169219970703125 147.240203857421875 147.31072998046875 147.4000701904296875 147.4897918701171875 147.58013916015625 147.679718017578125 147.7396697998046875 147.710662841796875 147.6529083251953125 147.554718017578125
130.179229736328125 130.3251190185546875 130.4820709228515625 130.7696533203125 131.1930999755859375 131.4418182373046875 131.4620208740234375 131.3715057373046875 131.3568572998046875 131.2128448486328125 130.0378265380859375 129.0340423583984375 129.0340423583984375 129.72869873046875 131.27227783203125 132.328033447265625 132.901702880859375 133.260040283203125 133.459686279296875 133.5160980224609375 133.45037841796875 133.3398284912109375 133.24957275390625 133.1814727783203125 133.02801513671875 132.5993804931640625 131.9893341064453125 131.5953826904296875 131.7730865478515625 131.9842681884765625 132.3358917236328125 132.6198272705078125 132.8096771240234375 132.929351806640625 133.0000152587890625 133.0375213623046875 133.0463714599609375 133.09625244140625 133.2667388916015625 133.457550048828125 133.6457672119140625 133.799530029296875 133.9158477783203125 134.1369781494140625 134.371734619140625 134.5892333984375 134.780487060546875 134.9300994873046875 134.987884521484375 134.919677734375 134.868133544921875 134.9138946533203125 135.0403900146484375 135.234649658203125 135.4409332275390625 135.5713043212890625 135.7021331787109375 135.9271697998046875 136.119171142578125 136.2952423095703125 136.439056396484375 136.5699310302734375 136.7004852294921875 136.839630126953125 136.9696807861328125 137.0904388427734375 137.2186126708984375 137.3266143798828125 137.6600189208984375 138.135955810546875 138.5747528076171875 138.7818603515625 138.99920654296875 139.3105316162109375 139.629241943359375 139.9402618408203125 140.23095703125 140.5192718505859375 140.799835205078125 141.0802154541015625 141.36053466796875 141.6407470703125 141.9137420654296875 142.1604461669921875 142.377899169921875 142.7303619384765625 142.98638916015625 143.332305908203125 143.729461669921875 144.117919921875 144.482513427734375 144.8183135986328125 145.0725555419921875 145.2191925048828125 145.2103271484375 145.1401519775390625 145.0700531005859375 145.0297393798828125 145.0098724365234375 144.98016357421875 144.9304351806640625 144.8808441162109375 144.832550048828125 144.8315582275390625 144.8219451904296875 144.812530517578125 144.79949951171875 144.7858428955078125 144.7675933837890625 144.719146728515625 144.66888427734375 144.6285247802734375 144.6707916259765625 144.671112060546875 144.66876220703125 144.6602783203125 144.6497650146484375 144.630340576171875 144.616668701171875 144.6158294677734375 144.7394256591796875 144.889801025390625 144.999542236328125 145.019989013671875 145.021575927734375 145.1297760009765625 145.2599029541015625 145.3998870849609375 145.55029296875 145.7209320068359375 145.9300689697265625 146.1338653564453125 146.3158111572265625 146.60467529296875 146.8459930419921875 146.9402618408203125 147.010101318359375 147.09954833984375 147.179168701171875 147.2310028076171875 147.3299407958984375 147.4197998046875 147.490509033203125 147.5897216796875 147.710052490234375 147.800445556640625 147.7816314697265625 147.6663818359375 147.2476654052734375
129.0340423583984375 129.5186920166015625 130.1373291015625 130.6984405517578125 131.3126373291015625 131.6805267333984375 131.6868133544921875 131.4080047607421875 131.254364013671875 131.6667633056640625 130.843048095703125 129.0340423583984375 129.0340423583984375 129.0340423583984375 130.6039581298828125 132.0023956298828125 132.7636566162109375 133.0587921142578125 133.1444854736328125 133.1541595458984375 133.1215972900390625 133.06982421875 133.0690765380859375 133.090606689453125 133.0897216796875 132.925048828125 132.591766357421875 132.1172332763671875 131.9568328857421875 132.0850830078125 132.31427001953125 132.52899169921875 132.659881591796875 132.740020751953125 132.7993927001953125 132.8311309814453125 132.891357421875 133.03057861328125 133.23687744140625 133.402801513671875 133.6033935546875 133.8222198486328125 134.04754638671875 134.2970123291015625 134.5384674072265625 134.748626708984375 134.910675048828125 135.0399017333984375 135.1104736328125 135.140716552734375 135.195404052734375 135.2862701416015625 135.343719482421875 135.3925018310546875 135.577117919921875 135.7981414794921875 136.003265380859375 136.2022705078125 136.3486480712890625 136.4800262451171875 136.600830078125 136.730438232421875 136.8593597412109375 136.979766845703125 137.0904693603515625 137.2005157470703125 137.319305419921875 137.419891357421875 137.63458251953125 138.074951171875 138.491851806640625 138.7412872314453125 138.990264892578125 139.29034423828125 139.59991455078125 139.9008941650390625 140.19927978515625 140.48956298828125 140.7704925537109375 141.058563232421875 141.3414154052734375 141.63995361328125 141.9471282958984375 142.246307373046875 142.518646240234375 142.79248046875 143.097808837890625 143.45269775390625 143.8478546142578125 144.2309417724609375 144.5994415283203125 144.94219970703125 145.244537353515625 145.38885498046875 145.3298492431640625 145.229736328125 145.1299896240234375 145.0501556396484375 145.00006103515625 144.959686279296875 144.899810791015625 144.8496856689453125 144.8090972900390625 144.769073486328125 144.6997528076171875 144.62109375 144.552215576171875 144.485595703125 144.4809417724609375 144.433502197265625 144.4035186767578125 144.4152679443359375 144.3997344970703125 144.38873291015625 144.3805694580078125 144.3703155517578125 144.3603515625 144.346160888671875 144.3637847900390625 144.489593505859375 144.670867919921875 144.870452880859375 145.0196533203125 145.0704193115234375 145.1002349853515625 145.1806488037109375 145.3096466064453125 145.4504852294921875 145.6190948486328125 145.79083251953125 145.9908905029296875 146.1800689697265625 146.3495941162109375 146.5698394775390625 146.81170654296875 146.969085693359375 147.0304718017578125 147.10882568359375 147.1517181396484375 147.2792510986328125 147.3897552490234375 147.4700164794921875 147.5299530029296875 147.581451416015625 147.702117919921875 147.778656005859375 147.649505615234375 147.186492919921875 146.2518463134765625
129.0340423583984375 129.0340423583984375 129.0340423583984375 129.8124542236328125 130.86871337890625 131.661224365234375 131.9186248779296875 131.5383148193359375 131.1318817138671875 131.5255889892578125 130.9783935546875 129.1666412353515625 129.0340423583984375 129.0340423583984375 129.303192138671875 130.666259765625 131.5728302001953125 132.060516357421875 132.391021728515625 132.616058349609375 132.70654296875 132.72393798828125 132.8243408203125 132.960205078125 133.020294189453125 132.9590911865234375 132.72930908203125 132.3917388916015625 132.140411376953125 132.1122894287109375 132.3828277587890625 132.5097198486328125 132.61065673828125 132.68231201171875 132.7525177001953125 132.8795166015625 133.0080108642578125 133.1500396728515625 133.331085205078125 133.5285491943359375 133.7397308349609375 133.977752685546875 134.2274322509765625 134.4781036376953125 134.70751953125 134.8993988037109375 135.0505828857421875 135.1499481201171875 135.2194976806640625 135.2685699462890625 135.2904205322265625 135.3329925537109375 135.524993896484375 135.7454376220703125 135.972259521484375 136.1413726806640625 136.2773284912109375 136.400604248046875 136.5198822021484375 136.63995361328125 136.760162353515625 136.88909912109375 137.000732421875 137.1106719970703125 137.2191162109375 137.3191680908203125 137.4196319580078125 137.51934814453125 137.6561431884765625 137.9981689453125 138.37994384765625 138.689788818359375 138.98028564453125 139.2884368896484375 139.5887451171875 139.879852294921875 140.169830322265625 140.4593963623046875 140.7409820556640625 141.0310821533203125 141.32940673828125 141.63079833984375 141.9419097900390625 142.28509521484375 142.658538818359375 142.8865509033203125 143.2122650146484375 143.5877227783203125 143.968902587890625 144.3384857177734375 144.6878814697265625 145.00787353515625 145.2883148193359375 145.4380950927734375 145.3503265380859375 145.2498779296875 145.1597747802734375 145.0701751708984375 145.0001983642578125 144.939788818359375 144.8601226806640625 144.789764404296875 144.71990966796875 144.6602020263671875 144.6098785400390625 144.559844970703125 144.5189056396484375 144.44927978515625 144.389678955078125 144.3294525146484375 144.2694549560546875 144.2020416259765625 144.143951416015625 144.133270263671875 144.1407012939453125 144.130767822265625 144.1273193359375 144.10418701171875 144.2313690185546875 144.450469970703125 144.6927490234375 144.92938232421875 145.08990478515625 145.1791229248046875 145.2196807861328125 145.279693603515625 145.3811187744140625 145.519561767578125 145.6898193359375 145.8895721435546875 146.1088409423828125 146.2804412841796875 146.41973876953125 146.565185546875 146.8144989013671875 146.9502716064453125 147.019256591796875 147.0715484619140625 147.199493408203125 147.3399200439453125 147.4600982666015625 147.550323486328125 147.619964599609375 147.653472900390625 147.665985107421875 147.359771728515625 146.7166748046875 145.899261474609375 144.690185546875
129.0340423583984375 129.0340423583984375 129.0340423583984375 129.0340423583984375 129.3849945068359375 130.53863525390625 131.340057373046875 131.4452056884765625 131.1318817138671875 131.2603912353515625 130.5087890625 129.0340423583984375 129.0340423583984375 129.0340423583984375 129.0340423583984375 129.21771240234375 129.9757537841796875 130.44818115234375 131.1057891845703125 131.7985076904296875 132.267974853515625 132.4644927978515625 132.6634368896484375 132.868560791015625 132.939910888671875 132.889984130859375 132.7197723388671875 132.46929931640625 132.2386627197265625 132.1236419677734375 132.3948516845703125 132.52996826171875 132.7599029541015625 132.9325408935546875 132.9700469970703125 133.059234619140625 133.1798858642578125 133.3292388916015625 133.501312255859375 133.699981689453125 133.910430908203125 134.1325225830078125 134.3718109130859375 134.609619140625 134.81219482421875 134.9996490478515625 135.16754150390625 135.219940185546875 135.250274658203125 135.2928009033203125 135.4297637939453125 135.6147308349609375 135.8762359619140625 136.1068115234375 136.27764892578125 136.3617706298828125 136.4504241943359375 136.5497589111328125 136.65057373046875 136.7700347900390625 136.8900604248046875 137.010101318359375 137.1287689208984375 137.2286224365234375 137.30047607421875 137.3914794921875 137.510986328125 137.6392669677734375 137.7410888671875 137.9690399169921875 138.3289642333984375 138.6602325439453125 138.9709625244140625 139.2796478271484375 139.571533203125 139.860137939453125 140.1412353515625 140.4305267333984375 140.718902587890625 141.010009765625 141.310577392578125 141.616729736328125 141.9275360107421875 142.30780029296875 142.7578887939453125 142.9855194091796875 143.3375244140625 143.7196044921875 144.082763671875 144.4214324951171875 144.7212066650390625 144.9730682373046875 145.18914794921875 145.2980804443359375 145.249786376953125 145.1804962158203125 145.129852294921875 145.0697174072265625 144.999908447265625 144.9101715087890625 144.8101959228515625 144.7005157470703125 144.600311279296875 144.5399627685546875 144.510162353515625 144.480072021484375 144.4302825927734375 144.3698883056640625 144.2902069091796875 144.2199859619140625 144.1595611572265625 144.108673095703125 144.078094482421875 144.0569000244140625 144.0089569091796875 143.969696044921875 143.9709320068359375 144.0502166748046875 144.2401885986328125 144.51007080078125 144.80615234375 145.0410919189453125 145.1704864501953125 145.2203216552734375 145.2695159912109375 145.340728759765625 145.4780731201171875 145.5821075439453125 145.7402801513671875 145.9588470458984375 146.22711181640625 146.4216461181640625 146.53106689453125 146.619873046875 146.7623748779296875 146.9188385009765625 146.970947265625 147.0989837646484375 147.2599639892578125 147.4099884033203125 147.5495758056640625 147.659820556640625 147.7330322265625 147.74334716796875 147.2189788818359375 146.0996246337890625 144.9061431884765625 144.3849639892578125 144.3374176025390625
129.0340423583984375 129.0340423583984375 129.0340423583984375 129.0340423583984375 129.0340423583984375 129.0340423583984375 129.6368255615234375 130.2829437255859375 130.373199462890625 130.3389739990234375 129.5398101806640625 129.0340423583984375 129.0340423583984375 129.0340423583984375 129.523834228515625 129.9055633544921875 129.3419036865234375 129.3419036865234375 129.349456787109375 130.4618072509765625 131.4965972900390625 132.113616943359375 132.485260009765625 132.760040283203125 132.850006103515625 132.8101959228515625 132.6798248291015625 132.490570068359375 132.320037841796875 132.2197723388671875 132.2942047119140625 132.6725921630859375 133.03631591796875 133.177215576171875 133.1707305908203125 133.2306671142578125 133.3504638671875 133.5102691650390625 133.698638916015625 133.8913726806640625 134.0998687744140625 134.3105316162109375 134.519195556640625 134.7177276611328125 134.8967742919921875 135.0203094482421875 135.1412353515625 135.2499237060546875 135.330963134765625 135.447998046875 135.5903472900390625 135.819549560546875 136.1090240478515625 136.36395263671875 136.4981842041015625 136.5301361083984375 136.580108642578125 136.6601715087890625 136.760162353515625 136.86944580078125 136.97900390625 137.0793914794921875 137.1604461669921875 137.252716064453125 137.399749755859375 137.539337158203125 137.6707000732421875 137.8159027099609375 137.894256591796875 138.06329345703125 138.366668701171875 138.680694580078125 138.9890594482421875 139.2897186279296875 139.57928466796875 139.8592681884765625 140.1302947998046875 140.4090118408203125 140.6810302734375 140.9706268310546875 141.26611328125 141.550994873046875 141.8697967529296875 142.3294525146484375 142.7675323486328125 143.0342254638671875 143.450225830078125 143.8692779541015625 144.2299957275390625 144.52960205078125 144.7692108154296875 144.9391021728515625 145.030242919921875 145.06976318359375 145.0608978271484375 145.069183349609375 145.0503387451171875 145.0205535888671875 144.9803466796875 144.880126953125 144.76824951171875 144.6283416748046875 144.4806365966796875 144.4103240966796875 144.419921875 144.409759521484375 144.3502960205078125 144.2796173095703125 144.1801300048828125 144.07965087890625 143.98944091796875 143.9110260009765625 143.8702545166015625 143.8405609130859375 143.82989501953125 143.8410186767578125 143.9298095703125 144.070526123046875 144.2905120849609375 144.580596923828125 144.900421142578125 145.175079345703125 145.2686920166015625 145.23968505859375 145.2611846923828125 145.3794708251953125 145.520782470703125 145.677490234375 145.7823944091796875 145.9640655517578125 146.294677734375 146.5847930908203125 146.66949462890625 146.6600799560546875 146.7592010498046875 146.8693695068359375 146.9306182861328125 147.0792388916015625 147.2946624755859375 147.46051025390625 147.6101531982421875 147.741241455078125 147.81890869140625 147.4447479248046875 146.150726318359375 144.28564453125 144.2840728759765625 144.3374176025390625 145.3575897216796875
129.0340423583984375 129.2579345703125 129.134124755859375 129.0340423583984375 129.0340423583984375 129.0340423583984375 129.0340423583984375 129.0340423583984375 129.0340423583984375 129.0340423583984375 129.0340423583984375 129.0340423583984375 129.0340423583984375 130.12261962890625 131.5870819091796875 131.871673583984375 130.9169158935546875 129.3419036865234375 129.3419036865234375 129.3419036865234375 130.3433380126953125 131.4261932373046875 132.1882171630859375 132.6267547607421875 132.7607574462890625 132.74981689453125 132.650146484375 132.520416259765625 132.410247802734375 132.3280181884765625 132.2557830810546875 132.5738067626953125 132.92926025390625 133.1317291259765625 133.249969482421875 133.359832763671875 133.4997711181640625 133.671478271484375 133.870452880859375 134.0693359375 134.2581939697265625 134.4455718994140625 134.5985107421875 134.7213287353515625 134.863677978515625 135.0403900146484375 135.19976806640625 135.330596923828125 135.4596099853515625 135.588958740234375 135.7137908935546875 135.942230224609375 136.2263031005859375 136.4483642578125 136.5693206787109375 136.5998992919921875 136.6499176025390625 136.729522705078125 136.8287506103515625 136.900238037109375 136.98187255859375 137.1111907958984375 137.2508087158203125 137.399505615234375 137.560760498046875 137.71868896484375 137.8509521484375 137.991180419921875 138.124420166015625 138.224029541015625 138.4420623779296875 138.7374420166015625 139.0211334228515625 139.3097991943359375 139.5901031494140625 139.8602447509765625 140.1210174560546875 140.3798065185546875 140.62994384765625 140.9039154052734375 141.165313720703125 141.4284210205078125 141.8637542724609375 142.346923828125 142.693145751953125 143.0949859619140625 143.6025848388671875 144.0586700439453125 144.39678955078125 144.62890625 144.7795257568359375 144.8492279052734375 144.8404693603515625 144.8119049072265625 144.8212890625 144.8878631591796875 144.9375152587890625 144.9590911865234375 144.956298828125 144.810638427734375 144.64404296875 144.5019989013671875 144.3523101806640625 144.2615509033203125 144.306671142578125 144.3077392578125 144.2585296630859375 144.171661376953125 144.0484466552734375 143.90069580078125 143.779571533203125 143.69097900390625 143.64898681640625 143.6316070556640625 143.6907196044921875 143.8093719482421875 143.9405364990234375 144.119232177734375 144.34124755859375 144.6195831298828125 144.9166717529296875 145.1476898193359375 145.2090301513671875 145.172119140625 145.2693939208984375 145.3900909423828125 145.539825439453125 145.7006072998046875 145.856903076171875 145.9506988525390625 146.2397003173828125 146.5691375732421875 146.665069580078125 146.5822296142578125 146.680450439453125 146.8003387451171875 146.91015625 147.025482177734375 147.24053955078125 147.497833251953125 147.6498565673828125 147.7816314697265625 147.7451324462890625 146.8138885498046875 144.9941864013671875 144.2840728759765625 144.2840728759765625 145.798492431640625 146.9883270263671875
129.0340423583984375 130.77520751953125 131.1378326416015625 130.29248046875 129.2103271484375 129.0340423583984375 129.0340423583984375 129.0340423583984375 129.0340423583984375 129.0340423583984375 129.0340423583984375 129.0340423583984375 130.08294677734375 132.0225830078125 133.3627166748046875 133.6054229736328125 132.671051025390625 130.9920806884765625 129.3419036865234375 129.3419036865234375 129.3419036865234375 130.299285888671875 131.496917724609375 132.3428955078125 132.651885986328125 132.67047119140625 132.6197052001953125 132.5597381591796875 132.509521484375 132.4581756591796875 132.3705902099609375 132.463043212890625 132.809844970703125 133.0791168212890625 133.2691650390625 133.420379638671875 133.590179443359375 133.7963409423828125 133.9972076416015625 134.176239013671875 134.3101043701171875 134.434814453125 134.6130523681640625 134.7999267578125 134.9786529541015625 135.150909423828125 135.319549560546875 135.4603424072265625 135.599578857421875 135.7298431396484375 135.8603973388671875 136.0403594970703125 136.2500152587890625 136.41082763671875 136.519683837890625 136.5700531005859375 136.6497039794921875 136.72076416015625 136.8224334716796875 136.970184326171875 137.1184844970703125 137.2614593505859375 137.42987060546875 137.59979248046875 137.7689971923828125 137.9203948974609375 138.0595245361328125 138.1920013427734375 138.3372650146484375 138.4296112060546875 138.5652008056640625 138.8176422119140625 139.080535888671875 139.35052490234375 139.6205902099609375 139.880767822265625 140.1295166015625 140.3500213623046875 140.5477447509765625 140.784149169921875 141.0829925537109375 141.4819488525390625 141.9358978271484375 142.395263671875 142.6446990966796875 143.2178497314453125 143.8316650390625 144.30596923828125 144.5614013671875 144.6903533935546875 144.7301483154296875 144.7007904052734375 144.63848876953125 144.5522613525390625 144.5428619384765625 144.609588623046875 144.6707611083984375 144.7189178466796875 144.7293853759765625 144.6662750244140625 144.5652618408203125 144.4440765380859375 144.29833984375 144.1139373779296875 144.09246826171875 144.0926055908203125 144.0926361083984375 144.095855712890625 143.8841400146484375 143.699188232421875 143.5519561767578125 143.4782867431640625 143.451080322265625 143.500518798828125 143.6308441162109375 143.8104248046875 143.979522705078125 144.1608734130859375 144.3793792724609375 144.6111907958984375 144.841522216796875 145.019744873046875 145.0814056396484375 145.159423828125 145.260162353515625 145.38031005859375 145.5300445556640625 145.6895599365234375 145.8427581787109375 146.033935546875 146.11431884765625 146.2689666748046875 146.4047393798828125 146.5102081298828125 146.6687774658203125 146.8212738037109375 147.00811767578125 147.1966400146484375 147.4139862060546875 147.6093902587890625 147.672821044921875 147.78973388671875 147.4518585205078125 146.0420379638671875 144.29541015625 144.2840728759765625 145.7349700927734375 147.089996337890625 147.7871246337890625
129.5341949462890625 131.5233001708984375 132.1507720947265625 131.5957489013671875 130.99493408203125 130.500152587890625 129.9823760986328125 129.21484375 129.0340423583984375 129.0340423583984375 129.4294281005859375 130.4725341796875 131.9738616943359375 133.409210205078125 134.291351318359375 134.33819580078125 133.542755126953125 132.14453125 130.566558837890625 129.3727874755859375 129.3419036865234375 129.3419036865234375 130.4366302490234375 131.7878265380859375 132.4692535400390625 132.5402679443359375 132.520050048828125 132.539337158203125 132.560577392578125 132.56707763671875 132.5205078125 132.382080078125 132.7443389892578125 133.012969970703125 133.2217864990234375 133.407684326171875 133.5861358642578125 133.791290283203125 134.01153564453125 134.182769775390625 134.4035491943359375 134.5974884033203125 134.76995849609375 134.950103759765625 135.130279541015625 135.30950927734375 135.4697723388671875 135.6100311279296875 135.7402496337890625 135.870513916015625 136.0001983642578125 136.13116455078125 136.2794342041015625 136.3989715576171875 136.470550537109375 136.541748046875 136.6805419921875 136.820098876953125 136.9693450927734375 137.1314697265625 137.3097991943359375 137.480010986328125 137.6595306396484375 137.8313751220703125 137.9998321533203125 138.150390625 138.290313720703125 138.4204254150390625 138.5496826171875 138.64874267578125 138.75079345703125 138.9226837158203125 139.168212890625 139.4207611083984375 139.680023193359375 139.9202117919921875 140.1375579833984375 140.3259124755859375 140.46868896484375 140.76361083984375 141.1329345703125 141.57196044921875 142.03033447265625 142.4395599365234375 142.7054443359375 143.378753662109375 144.1067962646484375 144.6418914794921875 144.7606201171875 144.769287109375 144.6895904541015625 144.569305419921875 144.42999267578125 144.3021240234375 144.2704010009765625 144.3081207275390625 144.3501129150390625 144.3891448974609375 144.398834228515625 144.3532562255859375 144.27056884765625 144.1468048095703125 144.024993896484375 143.9701995849609375 143.9878082275390625 143.9982147216796875 144.0134124755859375 143.94317626953125 143.683013916015625 143.4716644287109375 143.3280487060546875 143.27166748046875 143.32025146484375 143.4508056640625 143.649017333984375 143.86700439453125 144.0316162109375 144.209136962890625 144.409423828125 144.6195068359375 144.809722900390625 144.949981689453125 145.0399627685546875 145.1297760009765625 145.249542236328125 145.370391845703125 145.5099945068359375 145.660186767578125 145.8196868896484375 145.985076904296875 146.1851806640625 146.2313232421875 146.3302459716796875 146.4886474609375 146.671661376953125 146.8790283203125 147.0914459228515625 147.3344879150390625 147.6274261474609375 147.7781219482421875 147.7815704345703125 147.78863525390625 147.0428619384765625 145.1623992919921875 143.9053802490234375 144.5765838623046875 146.46221923828125 147.568572998046875 147.8045501708984375
129.8495635986328125 131.661773681640625 131.955841064453125 131.5604095458984375 131.716552734375 132.1244354248046875 132.1552734375 131.6205902099609375 131.113067626953125 131.100433349609375 131.5560150146484375 132.2887725830078125 133.1751556396484375 133.923675537109375 134.2289276123046875 134.0592803955078125 133.3326263427734375 132.0213775634765625 130.549041748046875 129.6282196044921875 129.3419036865234375 129.3419036865234375 129.4116058349609375 131.129913330078125 132.1341552734375 132.279388427734375 132.3727264404296875 132.5204925537109375 132.7071075439453125 132.8375701904296875 132.7890777587890625 132.562835693359375 132.6498565673828125 132.901702880859375 133.1055450439453125 133.273101806640625 133.4814605712890625 133.84356689453125 134.1977996826171875 134.460174560546875 134.6662139892578125 134.8190155029296875 134.9598236083984375 135.1191864013671875 135.290496826171875 135.4686431884765625 135.62030029296875 135.7596435546875 135.8811798095703125 136.0090179443359375 136.128204345703125 136.22882080078125 136.300384521484375 136.3824920654296875 136.5299835205078125 136.6784210205078125 136.831146240234375 137.000244140625 137.1791534423828125 137.360260009765625 137.5496978759765625 137.7313385009765625 137.9191436767578125 138.0981292724609375 138.2602081298828125 138.4108123779296875 138.54949951171875 138.6700439453125 138.7796630859375 138.8695831298828125 138.959197998046875 139.072479248046875 139.2701873779296875 139.5108184814453125 139.7493438720703125 139.94647216796875 140.0914154052734375 140.2673492431640625 140.537689208984375 140.8697509765625 141.2605133056640625 141.69952392578125 142.1335906982421875 142.4501953125 142.812225341796875 143.52362060546875 144.31671142578125 144.892974853515625 144.850799560546875 144.7298736572265625 144.5709075927734375 144.399871826171875 144.2200469970703125 144.0598297119140625 144.0015411376953125 144.0003814697265625 144.018829345703125 144.0406494140625 144.05181884765625 144.0283050537109375 143.9442138671875 143.7989501953125 143.7454986572265625 143.7780914306640625 143.7695159912109375 143.74029541015625 143.6920013427734375 143.5830535888671875 143.3914642333984375 143.2238922119140625 143.1038360595703125 143.1400299072265625 143.2612762451171875 143.458648681640625 143.6715545654296875 143.9011993408203125 144.1070098876953125 144.2425994873046875 144.42041015625 144.61981201171875 144.7891998291015625 144.9102325439453125 145.0096435546875 145.0714263916015625 145.1981201171875 145.3480987548828125 145.480316162109375 145.6298675537109375 145.8000335693359375 145.9790496826171875 146.1428070068359375 146.2879486083984375 146.3419189453125 146.4940032958984375 146.7176513671875 146.9292755126953125 147.148895263671875 147.377105712890625 147.58135986328125 147.7299346923828125 147.800384521484375 147.7860107421875 146.76873779296875 144.6777801513671875 143.9053802490234375 144.7975006103515625 146.7328338623046875 147.6062469482421875 147.6925201416015625
130.150909423828125 131.8096923828125 131.9378204345703125 131.5654449462890625 131.9420013427734375 132.7086181640625 133.1185302734375 132.7225189208984375 132.196685791015625 132.1063995361328125 132.4674072265625 132.9334564208984375 133.3968353271484375 133.7907562255859375 133.9690704345703125 133.6800384521484375 132.74755859375 131.00347900390625 129.3419036865234375 129.3419036865234375 129.3419036865234375 129.3419036865234375 129.3419036865234375 130.6966552734375 131.700164794921875 131.9203338623046875 132.408966064453125 132.782806396484375 132.9285125732421875 132.5939483642578125 132.214874267578125 131.9570465087890625 132.06591796875 132.403076171875 132.7233734130859375 133.0891876220703125 133.5699310302734375 134.151580810546875 134.5844573974609375 134.84307861328125 134.9534149169921875 135.0209197998046875 135.1097259521484375 135.2402191162109375 135.418487548828125 135.59222412109375 135.750213623046875 135.8789520263671875 135.9981536865234375 136.06988525390625 136.1320343017578125 136.25189208984375 136.390045166015625 136.5289154052734375 136.690582275390625 136.869384765625 137.0490264892578125 137.2304229736328125 137.4216156005859375 137.62005615234375 137.8191986083984375 138.0093536376953125 138.191619873046875 138.37103271484375 138.5404052734375 138.6985626220703125 138.83056640625 138.9408111572265625 139.0308990478515625 139.1019439697265625 139.1788330078125 139.2589111328125 139.392425537109375 139.617889404296875 139.8076171875 139.92462158203125 140.1300506591796875 140.37109375 140.6790618896484375 141.0228118896484375 141.41204833984375 141.836090087890625 142.2552337646484375 142.46856689453125 142.8828277587890625 143.5019378662109375 144.1788330078125 144.664215087890625 144.69598388671875 144.56146240234375 144.3983154296875 144.2098846435546875 144.0176239013671875 143.826690673828125 143.7891998291015625 143.7520599365234375 143.7333221435546875 143.742095947265625 143.7508544921875 143.71343994140625 143.6530914306640625 143.5732574462890625 143.589263916015625 143.5883636474609375 143.522308349609375 143.4512176513671875 143.3616485595703125 143.240570068359375 143.0947113037109375 142.9748687744140625 142.99981689453125 143.1011199951171875 143.288665771484375 143.5010528564453125 143.739349365234375 143.9700164794921875 144.170989990234375 144.3383636474609375 144.4624786376953125 144.6289520263671875 144.76043701171875 144.8898468017578125 144.999847412109375 145.0788421630859375 145.09271240234375 145.2499542236328125 145.42919921875 145.580841064453125 145.76947021484375 145.9698028564453125 146.1680755615234375 146.3217315673828125 146.47222900390625 146.618743896484375 146.7704620361328125 146.9409027099609375 147.1297760009765625 147.3109588623046875 147.4799652099609375 147.60882568359375 147.7152099609375 147.8244781494140625 146.7252349853515625 144.6900787353515625 143.9053802490234375 145.14093017578125 146.879241943359375 147.536224365234375 147.60089111328125
130.4534149169921875 131.9398345947265625 131.901611328125 131.573272705078125 131.8123016357421875 132.3807373046875 132.6947479248046875 132.55194091796875 132.2465667724609375 132.106597900390625 132.3670196533203125 132.709869384765625 133.0683441162109375 133.3562469482421875 133.463470458984375 133.1812591552734375 132.297943115234375 130.4594879150390625 129.3419036865234375 129.3419036865234375 129.6360015869140625 129.8303070068359375 130.2487030029296875 130.831146240234375 131.5206146240234375 132.1053314208984375 132.757568359375 133.08563232421875 132.447418212890625 131.368560791015625 130.6458282470703125 130.3035736083984375 130.426788330078125 131.0312957763671875 131.7400360107421875 132.54644775390625 133.4580841064453125 134.3430023193359375 134.9547576904296875 135.189605712890625 135.2005157470703125 135.15997314453125 135.1699981689453125 135.2795867919921875 135.4700469970703125 135.7032470703125 135.848358154296875 135.9111328125 136.0033416748046875 136.141204833984375 136.27801513671875 136.41021728515625 136.56036376953125 136.7207183837890625 136.9000396728515625 137.0906829833984375 137.2905426025390625 137.4908599853515625 137.698333740234375 137.900177001953125 138.1004791259765625 138.2992095947265625 138.4893341064453125 138.670074462890625 138.840087890625 139.00042724609375 139.139129638671875 139.2488861083984375 139.3284149169921875 139.3794097900390625 139.4109344482421875 139.4415740966796875 139.532073974609375 139.71771240234375 139.8717041015625 140.039886474609375 140.261749267578125 140.53973388671875 140.8600006103515625 141.2086334228515625 141.58074951171875 141.979522705078125 142.365966796875 142.4776611328125 142.896453857421875 143.4238739013671875 143.9258880615234375 144.257720947265625 144.3503570556640625 144.2890167236328125 144.160064697265625 144.00054931640625 143.840240478515625 143.7100982666015625 143.6698150634765625 143.64947509765625 143.609832763671875 143.570587158203125 143.5276641845703125 143.4020233154296875 143.4894866943359375 143.509368896484375 143.47967529296875 143.4105987548828125 143.3194580078125 143.2096099853515625 143.088592529296875 142.9544830322265625 142.844329833984375 142.8801727294921875 142.9902496337890625 143.1492919921875 143.3504791259765625 143.580322265625 143.830078125 144.0690765380859375 144.270263671875 144.440582275390625 144.5586090087890625 144.6405487060546875 144.7502288818359375 144.8699951171875 144.980224609375 145.0893096923828125 145.13934326171875 145.21246337890625 145.388275146484375 145.52960205078125 145.72119140625 145.940582275390625 146.170501708984375 146.4013519287109375 146.651519775390625 146.7408599853515625 146.830047607421875 146.959381103515625 147.100372314453125 147.2495269775390625 147.38824462890625 147.509613037109375 147.7965240478515625 147.9403839111328125 146.7454376220703125 144.707672119140625 143.9053802490234375 145.31756591796875 146.92083740234375 147.4420318603515625 147.5008697509765625
130.67236328125 131.9376983642578125 131.806610107421875 131.6008453369140625 131.7333831787109375 132.0747528076171875 132.3128509521484375 132.321746826171875 132.2305908203125 132.2237548828125 132.096038818359375 132.3599853515625 132.6251983642578125 132.81707763671875 132.892242431640625 132.79718017578125 132.350189208984375 130.8015289306640625 129.3419036865234375 129.3419036865234375 130.19427490234375 131.19549560546875 131.61181640625 131.678619384765625 131.978118896484375 132.61041259765625 133.226531982421875 132.9783782958984375 131.4702301025390625 130.3035736083984375 130.3035736083984375 130.3035736083984375 130.3035736083984375 130.3035736083984375 130.3606719970703125 131.4803009033203125 132.6838531494140625 133.8094329833984375 134.6389312744140625 135.0449066162109375 135.1285552978515625 135.074127197265625 135.081787109375 135.209869384765625 135.4314117431640625 135.6576690673828125 135.8731842041015625 136.0408477783203125 136.188690185546875 136.330230712890625 136.470855712890625 136.6195068359375 136.7793731689453125 136.950164794921875 137.1397857666015625 137.341552734375 137.5584564208984375 137.770294189453125 137.9805145263671875 138.18914794921875 138.3908233642578125 138.591094970703125 138.78985595703125 138.9783935546875 139.15130615234375 139.3194122314453125 139.4610595703125 139.5699920654296875 139.64306640625 139.6894073486328125 139.6984405517578125 139.6816253662109375 139.70953369140625 139.8305816650390625 139.999725341796875 140.19989013671875 140.4402008056640625 140.7299346923828125 141.0496063232421875 141.38873291015625 141.741668701171875 142.1230621337890625 142.447357177734375 142.5484161376953125 142.898590087890625 143.3155670166015625 143.6766204833984375 143.90899658203125 143.9995880126953125 143.98016357421875 143.9000701904296875 143.789764404296875 143.6709136962890625 143.5895233154296875 143.5602569580078125 143.5599212646484375 143.53009033203125 143.490570068359375 143.43572998046875 143.4020233154296875 143.4471588134765625 143.4499053955078125 143.369873046875 143.2602386474609375 143.13983154296875 143.0010986328125 142.8583221435546875 142.7236328125 142.7606658935546875 142.8988189697265625 143.049285888671875 143.2210845947265625 143.439788818359375 143.6809539794921875 143.9385528564453125 144.180419921875 144.3834686279296875 144.5381011962890625 144.580810546875 144.6600494384765625 144.7597503662109375 144.859893798828125 144.9600830078125 145.0702972412109375 145.169769287109375 145.268890380859375 145.35028076171875 145.450408935546875 145.68927001953125 145.9203033447265625 146.160125732421875 146.4096221923828125 146.6503753662109375 146.808868408203125 146.8505859375 146.9403228759765625 147.0697021484375 147.180023193359375 147.3017120361328125 147.5152587890625 147.87274169921875 147.962615966796875 146.6481170654296875 144.544952392578125 143.9053802490234375 145.25506591796875 146.8616943359375 147.3397979736328125 147.400726318359375
130.773773193359375 131.7402191162109375 131.569610595703125 131.5391082763671875 131.6898651123046875 131.9214324951171875 132.1098480224609375 132.17919921875 132.1400146484375 132.0926361083984375 132.1254730224609375 132.0879974365234375 132.243255615234375 132.35089111328125 132.4581451416015625 132.6230621337890625 132.7455902099609375 131.5340423583984375 129.55694580078125 129.3419036865234375 129.480621337890625 131.1741943359375 132.133544921875 132.1320037841796875 132.3179931640625 132.974334716796875 133.6154937744140625 132.814117431640625 130.8812103271484375 130.3035736083984375 130.3035736083984375 130.3035736083984375 130.3035736083984375 130.3035736083984375 130.3035736083984375 130.3035736083984375 131.0047454833984375 132.06585693359375 133.0000152587890625 133.7042083740234375 134.2481231689453125 134.6252899169921875 134.9031219482421875 135.158782958984375 135.5217742919921875 135.82763671875 136.0711212158203125 136.2782745361328125 136.4398040771484375 136.579376220703125 136.7108001708984375 136.8513031005859375 137.01025390625 137.1892242431640625 137.38958740234375 137.608673095703125 137.83148193359375 138.0588226318359375 138.2712554931640625 138.481292724609375 138.6891632080078125 138.889190673828125 139.0886688232421875 139.2809906005859375 139.46966552734375 139.6501922607421875 139.80657958984375 139.9209747314453125 140.0066375732421875 140.0413970947265625 140.0308074951171875 139.9771881103515625 139.909149169921875 139.979949951171875 140.149688720703125 140.368927001953125 140.6214141845703125 140.918914794921875 141.229949951171875 141.5504913330078125 141.876251220703125 142.230682373046875 142.3967132568359375 142.6092529296875 142.9039154052734375 143.2125244140625 143.45233154296875 143.60107421875 143.66925048828125 143.6689605712890625 143.628692626953125 143.5683746337890625 143.498748779296875 143.4412841796875 143.4599151611328125 143.4895782470703125 143.4799652099609375 143.4595794677734375 143.4116363525390625 143.4020233154296875 143.4106292724609375 143.3599700927734375 143.2501983642578125 143.129852294921875 143.0003662109375 142.8688812255859375 142.731170654296875 142.710174560546875 142.8085784912109375 142.9402313232421875 143.110076904296875 143.30963134765625 143.539581298828125 143.79638671875 144.056793212890625 144.31695556640625 144.5161590576171875 144.5409393310546875 144.59014892578125 144.669891357421875 144.750091552734375 144.84014892578125 144.940093994140625 145.0596466064453125 145.1602630615234375 145.25982666015625 145.329376220703125 145.3590545654296875 145.6681365966796875 145.901336669921875 146.130279541015625 146.370330810546875 146.6007232666015625 146.7985076904296875 146.8607940673828125 146.9304046630859375 147.0496673583984375 147.140167236328125 147.2620849609375 147.4987945556640625 147.8538818359375 147.8550567626953125 146.4474029541015625 144.4125518798828125 143.9053802490234375 145.454437255859375 146.8781585693359375 147.243682861328125 147.3102264404296875
130.8323516845703125 131.4823760986328125 131.4823760986328125 131.4823760986328125 131.6568450927734375 131.8690185546875 132.0101776123046875 132.080322265625 132.0898590087890625 132.0802459716796875 132.0802459716796875 132.10797119140625 132.12982177734375 132.12982177734375 132.1832427978515625 132.5097198486328125 132.9733123779296875 132.4604034423828125 130.9531402587890625 129.3419036865234375 129.3419036865234375 130.2985076904296875 131.3986358642578125 131.7180328369140625 131.8910064697265625 132.3750762939453125 132.95343017578125 132.3872528076171875 130.6745452880859375 130.3035736083984375 131.1728363037109375 130.502105712890625 130.3035736083984375 130.3035736083984375 130.3035736083984375 130.3035736083984375 130.3035736083984375 130.3035736083984375 130.346893310546875 131.350616455078125 132.5026092529296875 133.69952392578125 134.684967041015625 135.3905487060546875 135.837677001953125 136.1142578125 136.3503570556640625 136.559112548828125 136.7197113037109375 136.8511810302734375 136.979766845703125 137.1090545654296875 137.250152587890625 137.42120361328125 137.63134765625 137.86968994140625 138.1107940673828125 138.3491668701171875 138.5692138671875 138.7782745361328125 138.9788055419921875 139.170562744140625 139.3704681396484375 139.5777740478515625 139.780670166015625 139.9774932861328125 140.140777587890625 140.2785797119140625 140.3802947998046875 140.437347412109375 140.4283599853515625 140.3535614013671875 140.2382049560546875 140.17120361328125 140.3080291748046875 140.531341552734375 140.8007354736328125 141.09991455078125 141.40093994140625 141.7064056396484375 142.0079498291015625 142.344573974609375 142.46124267578125 142.6917724609375 142.98077392578125 143.20025634765625 143.3085784912109375 143.339752197265625 143.348876953125 143.33868408203125 143.3198699951171875 143.30078125 143.2906341552734375 143.29998779296875 143.349822998046875 143.399932861328125 143.4201507568359375 143.4201507568359375 143.3994140625 143.361053466796875 143.3398895263671875 143.269317626953125 143.14068603515625 143.0205230712890625 142.90020751953125 142.7801055908203125 142.710174560546875 142.72991943359375 142.830291748046875 142.980377197265625 143.170440673828125 143.389923095703125 143.6301422119140625 143.9037017822265625 144.237823486328125 144.4729461669921875 144.500823974609375 144.520599365234375 144.5899658203125 144.669677734375 144.7402191162109375 144.829681396484375 144.9201812744140625 145.040069580078125 145.1598663330078125 145.260589599609375 145.3690643310546875 145.430206298828125 145.633453369140625 145.8864288330078125 146.09100341796875 146.3184814453125 146.53179931640625 146.7494659423828125 146.8989410400390625 146.9406585693359375 147.0394744873046875 147.1300811767578125 147.269287109375 147.4882354736328125 147.8202362060546875 147.6511077880859375 146.0860748291015625 144.0955047607421875 143.9053802490234375 145.712310791015625 146.9138031005859375 147.1629486083984375 147.220458984375
130.9322509765625 131.48980712890625 131.4823760986328125 131.5287933349609375 131.709564208984375 131.8698883056640625 131.989837646484375 132.05963134765625 132.0802459716796875 132.0802459716796875 132.0802459716796875 132.1007843017578125 132.16815185546875 132.12982177734375 132.150665283203125 132.368988037109375 132.759368896484375 133.0074005126953125 132.2367706298828125 130.8729248046875 129.5838775634765625 129.35882568359375 129.9302520751953125 130.21075439453125 130.38623046875 130.5755157470703125 131.3315277099609375 131.4176788330078125 130.3958282470703125 130.3035736083984375 132.0493621826171875 131.696044921875 130.3035736083984375 130.3035736083984375 130.3035736083984375 130.3035736083984375 130.3035736083984375 130.3035736083984375 130.3035736083984375 130.3035736083984375 130.3035736083984375 132.2226409912109375 134.0105133056640625 135.3266754150390625 136.0520782470703125 136.3770294189453125 136.6221466064453125 136.838226318359375 137 137.1303558349609375 137.2496795654296875 137.36181640625 137.491485595703125 137.661041259765625 137.8809051513671875 138.13128662109375 138.387939453125 138.6285858154296875 138.8491363525390625 139.051422119140625 139.2500762939453125 139.44061279296875 139.63934326171875 139.851226806640625 140.07861328125 140.28961181640625 140.470794677734375 140.6295318603515625 140.7587127685546875 140.8477935791015625 140.87225341796875 140.820343017578125 140.6397705078125 140.38690185546875 140.448486328125 140.6933135986328125 140.9823760986328125 141.283050537109375 141.5558929443359375 141.819854736328125 142.124114990234375 142.4470062255859375 142.495452880859375 142.7594146728515625 143.06695556640625 143.1880340576171875 143.1205596923828125 143.0496673583984375 143.0090179443359375 142.988494873046875 142.9976043701171875 143.026458740234375 143.0781097412109375 143.140472412109375 143.230560302734375 143.3205108642578125 143.3804473876953125 143.3898773193359375 143.3609771728515625 143.330535888671875 143.2808990478515625 143.181488037109375 143.060943603515625 142.94976806640625 142.828399658203125 142.7005157470703125 142.68890380859375 142.750091552734375 142.8601531982421875 143.029937744140625 143.2393341064453125 143.4801025390625 143.7512969970703125 144.086822509765625 144.4076690673828125 144.37347412109375 144.4304046630859375 144.4998779296875 144.5798492431640625 144.6502227783203125 144.7298736572265625 144.810211181640625 144.9099578857421875 145.0401763916015625 145.1801605224609375 145.299896240234375 145.400177001953125 145.49041748046875 145.6401519775390625 145.8484649658203125 146.0402679443359375 146.250457763671875 146.4679412841796875 146.680511474609375 146.887908935546875 146.9405059814453125 147.000335693359375 147.089691162109375 147.219085693359375 147.421112060546875 147.73907470703125 147.366912841796875 145.6302032470703125 143.6627655029296875 144.0847015380859375 145.8816986083984375 146.9123687744140625 147.0921630859375 147.15020751953125
131.1026611328125 131.656768798828125 131.6811065673828125 131.7205810546875 131.8105316162109375 131.9103546142578125 132.0001373291015625 132.0604705810546875 132.1095733642578125 132.110137939453125 132.1100006103515625 132.11065673828125 132.149993896484375 132.1589813232421875 132.1300506591796875 132.16064453125 132.2299652099609375 132.4389801025390625 132.698699951171875 132.161346435546875 130.9559326171875 129.7545166015625 129.35882568359375 129.35882568359375 129.67474365234375 129.67474365234375 129.67474365234375 130.0260009765625 129.8797607421875 130.8404388427734375 132.6156005859375 132.385406494140625 130.8926544189453125 130.3035736083984375 130.3035736083984375 130.3035736083984375 130.3035736083984375 130.3035736083984375 130.3035736083984375 130.3035736083984375 130.3035736083984375 130.572967529296875 132.9673004150390625 134.807586669921875 135.9604949951171875 136.5052337646484375 136.818939208984375 137.058013916015625 137.2381591796875 137.3783721923828125 137.4990997314453125 137.6175384521484375 137.7399444580078125 137.902801513671875 138.1298370361328125 138.3870849609375 138.6395263671875 138.880462646484375 139.1087799072265625 139.319732666015625 139.5196380615234375 139.7097930908203125 139.9031524658203125 140.1246185302734375 140.3698883056640625 140.598876953125 140.799560546875 140.970916748046875 141.12115478515625 141.24847412109375 141.338104248046875 141.3607025146484375 141.18414306640625 140.822509765625 140.594818115234375 140.798492431640625 141.165283203125 141.489898681640625 141.6630859375 141.870147705078125 142.1616058349609375 142.3679046630859375 142.4945068359375 142.7095794677734375 142.984893798828125 142.968963623046875 142.8108673095703125 142.71356201171875 142.67425537109375 142.657928466796875 142.6870269775390625 142.7305145263671875 142.8366241455078125 142.9723968505859375 143.1307373046875 143.279296875 143.3689422607421875 143.3505096435546875 143.347625732421875 143.3170166015625 143.271087646484375 143.147369384765625 142.9932861328125 142.84686279296875 142.700469970703125 142.580657958984375 142.5718536376953125 142.7378387451171875 142.8708038330078125 143.05950927734375 143.281158447265625 143.5607757568359375 143.901641845703125 144.2390899658203125 144.2932281494140625 144.3298492431640625 144.3994903564453125 144.47003173828125 144.559783935546875 144.640106201171875 144.7300872802734375 144.8203582763671875 144.92156982421875 145.0709075927734375 145.2296295166015625 145.3497161865234375 145.4499359130859375 145.5491485595703125 145.640716552734375 145.800689697265625 146.0001220703125 146.21026611328125 146.41461181640625 146.62982177734375 146.8500518798828125 146.9491119384765625 146.9701690673828125 147.010498046875 147.0915374755859375 147.2649383544921875 147.5656890869140625 146.955780029296875 145.0455780029296875 143.323638916015625 144.08209228515625 145.9244384765625 146.85638427734375 147.011962890625 147.07977294921875
131.322906494140625 131.822784423828125 131.8702392578125 131.8899078369140625 131.939697265625 131.99981689453125 132.0598297119140625 132.1098785400390625 132.1497955322265625 132.160125732421875 132.169952392578125 132.169525146484375 132.150726318359375 132.1501922607421875 132.1300506591796875 132.1300506591796875 132.1300506591796875 132.1300506591796875 132.4197845458984375 132.78912353515625 132.48004150390625 131.7570037841796875 131.1518707275390625 131.2554931640625 131.34466552734375 130.6793670654296875 130.1241302490234375 129.67474365234375 129.9967041015625 131.6308441162109375 133.09234619140625 132.6969451904296875 131.3503265380859375 130.3035736083984375 130.3035736083984375 130.3035736083984375 130.3035736083984375 130.3035736083984375 130.3035736083984375 130.3035736083984375 130.3035736083984375 130.3035736083984375 131.842132568359375 134.0961456298828125 135.616912841796875 136.4289093017578125 136.8680572509765625 137.1607666015625 137.3699798583984375 137.529998779296875 137.669952392578125 137.8010711669921875 137.950408935546875 138.1292877197265625 138.3496856689453125 138.6007232666015625 138.8600616455078125 139.1086578369140625 139.3412322998046875 139.5691070556640625 139.779083251953125 139.980926513671875 140.1917266845703125 140.4282684326171875 140.6703948974609375 140.901458740234375 141.1175689697265625 141.299713134765625 141.4583740234375 141.592315673828125 141.7111968994140625 141.77911376953125 141.6356964111328125 141.204681396484375 140.7633209228515625 140.878265380859375 141.3159027099609375 141.7193603515625 141.79132080078125 141.9072113037109375 142.2416534423828125 142.585693359375 142.3793182373046875 142.4403839111328125 142.5120849609375 142.437469482421875 142.36187744140625 142.4186859130859375 142.4860382080078125 142.552154541015625 142.60687255859375 142.613037109375 142.649444580078125 142.758270263671875 142.9418487548828125 143.1066741943359375 143.1930694580078125 143.1559600830078125 143.080780029296875 143.0009765625 142.9047698974609375 142.7696533203125 142.6859283447265625 142.6221160888671875 142.5699615478515625 142.51983642578125 142.5405731201171875 142.709625244140625 142.8700714111328125 143.060089111328125 143.2796630859375 143.5385589599609375 143.8342132568359375 144.1568145751953125 144.2074127197265625 144.2496490478515625 144.3201141357421875 144.4102935791015625 144.5201873779296875 144.6300811767578125 144.749786376953125 144.87921142578125 145.0087432861328125 145.1391448974609375 145.269378662109375 145.3601531982421875 145.459747314453125 145.55035400390625 145.659942626953125 145.8022308349609375 146.02105712890625 146.27349853515625 146.5609588623046875 146.83306884765625 146.9437103271484375 146.9605560302734375 146.9500732421875 146.959503173828125 146.9514312744140625 147.0147705078125 147.0812225341796875 146.294281005859375 144.3439788818359375 143.323638916015625 144.0307159423828125 145.9293975830078125 146.7576141357421875 146.90216064453125 146.980255126953125
131.4730682373046875 131.8495635986328125 131.92047119140625 131.9600067138671875 131.9999847412109375 132.0500640869140625 132.100067138671875 132.1500701904296875 132.190338134765625 132.2199859619140625 132.239898681640625 132.2401885986328125 132.230010986328125 132.2108154296875 132.14306640625 132.1300506591796875 132.1300506591796875 132.1300506591796875 132.269927978515625 132.8058319091796875 133.353118896484375 133.309051513671875 133.020660400390625 133.003387451171875 133.0275421142578125 132.7299652099609375 132.251251220703125 131.761505126953125 131.9938812255859375 133.00299072265625 133.575408935546875 132.9124908447265625 131.6888427734375 130.3035736083984375 130.3035736083984375 130.3035736083984375 130.3035736083984375 130.3035736083984375 130.3035736083984375 130.3035736083984375 130.3035736083984375 130.3035736083984375 130.7171783447265625 133.21221923828125 135.049041748046875 136.2127838134765625 136.8472747802734375 137.204833984375 137.4404754638671875 137.6202392578125 137.7898101806640625 137.9495849609375 138.1190948486328125 138.3006439208984375 138.5204620361328125 138.77874755859375 139.04833984375 139.30084228515625 139.549468994140625 139.788818359375 140.0109100341796875 140.2393341064453125 140.46905517578125 140.7100982666015625 140.957794189453125 141.189117431640625 141.400299072265625 141.588134765625 141.740966796875 141.86871337890625 141.9488677978515625 141.939727783203125 141.770172119140625 141.4214630126953125 141.014129638671875 140.9869842529296875 141.331787109375 141.729766845703125 141.8784332275390625 142.04229736328125 142.6425628662109375 143.56243896484375 142.55377197265625 142.2544708251953125 142.2428436279296875 142.2416839599609375 142.2424163818359375 142.284698486328125 142.3061981201171875 142.2364654541015625 142.08380126953125 141.9386749267578125 141.9244537353515625 142.115814208984375 142.4261932373046875 142.6803131103515625 142.785675048828125 142.761505126953125 142.6748504638671875 142.594879150390625 142.5337371826171875 142.4893035888671875 142.47052001953125 142.470245361328125 142.4795074462890625 142.4813995361328125 142.5301055908203125 142.6990203857421875 142.8603515625 143.039947509765625 143.23004150390625 143.430328369140625 143.63262939453125 143.8216400146484375 143.9469146728515625 144.091217041015625 144.220428466796875 144.3495635986328125 144.4791717529296875 144.5996856689453125 144.720184326171875 144.8500518798828125 144.98016357421875 145.10052490234375 145.2299041748046875 145.33026123046875 145.4401397705078125 145.56005859375 145.69964599609375 145.86981201171875 146.0995025634765625 146.38763427734375 146.7258453369140625 147.0514984130859375 147.167510986328125 147.0409698486328125 146.930206298828125 146.8804473876953125 146.741485595703125 146.561798095703125 146.2414398193359375 145.4049530029296875 143.994598388671875 143.323638916015625 144.5494537353515625 146.104339599609375 146.6746826171875 146.8017730712890625 146.899749755859375
